3.05579996 24.94890022 4.91419983 214 39 40
4.01469994 24.96120071 5.01179981 214 39 40
3.90610003 24.92070007 5.03929996 214 39 40
-0.05920000 24.96190071 5.01650000 214 39 40
0.70279998 24.95829964 5.02969980 214 39 40
3.77150011 24.96159935 4.96229982 214 39 40
-0.47369999 24.96290016 4.99350023 214 39 40
3.04819989 24.96100044 4.98759985 214 39 40
3.00990009 24.95240021 5.03539991 214 39 40
4.10680008 24.96150017 4.96169996 214 39 40
3.35809994 24.93540001 5.03980017 214 39 40
0.36860001 24.96139908 4.98859978 214 39 40
0.23459999 24.96139908 5.02180004 214 39 40
1.99510002 24.95929909 5.02489996 214 39 40
3.25939989 24.96179962 4.97690010 214 39 40
0.10710000 24.93330002 5.03940010 214 39 40
2.02119994 24.96109962 4.96980000 214 39 40
0.16080000 24.96159935 4.96689987 214 39 40
-0.24550000 24.96269989 4.98120022 214 39 40
3.08559990 24.92779922 5.03870010 214 39 40
3.16680002 24.96120071 4.99779987 214 39 40
0.34830001 24.96170044 4.96789980 214 39 40
2.62170005 24.93160057 4.92649984 214 39 40
2.67440009 24.96229935 5.00460005 214 39 40
2.12570000 24.95999908 5.02169991 214 39 40
0.88330001 24.93020058 5.03809977 214 39 40
2.82969999 24.94190025 4.93480015 214 39 40
2.05259991 24.96010017 5.00449991 214 39 40
4.13689995 24.96150017 4.96080017 214 39 40
3.10789990 24.89920044 4.91669989 214 39 40
2.77220011 24.95989990 4.98880005 214 39 40
4.14239979 24.96170044 4.98080015 214 39 40
2.96190000 24.96080017 4.99550009 214 39 40
3.40520000 24.92620087 5.03910017 214 39 40
0.47499999 24.96059990 5.02220011 214 39 40
3.67479992 24.96159935 4.96750021 214 39 40
3.75950003 24.96120071 4.98290014 214 39 40
0.20520000 24.96019936 5.02589989 214 39 40
3.00049996 24.94149971 5.03859997 214 39 40
2.52040005 24.96019936 4.98369980 214 39 40
3.38290000 24.96069908 5.00099993 214 39 40
3.33719993 24.95859909 5.03070021 214 39 40
2.34179997 24.96100044 4.96579981 214 39 40
2.89969993 24.96069908 5.01350021 214 39 40
3.53859997 24.95479965 5.03529978 214 39 40
2.38339996 24.96030045 5.01399994 214 39 40
4.09689999 24.93989944 5.04010010 214 39 40
3.77150011 24.96120071 4.96880007 214 39 40
2.67969990 24.95700073 5.02899981 214 39 40
3.21309996 24.96109962 5.01429987 214 39 40
3.17280006 24.96129990 4.97009993 214 39 40
-0.02410000 24.95669937 5.03520012 214 39 40
3.76220012 24.95949936 5.03090000 214 39 40
0.04140000 24.96150017 4.97590017 214 39 40
0.73559999 24.93190002 5.03719997 214 39 40
2.27110004 24.96039963 4.99770021 214 39 40
3.10750008 24.96050072 4.98890018 214 39 40
-0.23100001 24.96179962 5.02430010 214 39 40
-0.27039999 24.96269989 5.00489998 214 39 40
3.37890005 24.95019913 5.03760004 214 39 40
3.47049999 24.92119980 5.03919983 214 39 40
2.46190000 24.96100044 4.97219992 214 39 40
0.41710001 24.96100044 5.02239990 214 39 40
1.98930001 24.96139908 4.96850014 214 39 40
3.48740005 24.96100044 4.97349977 214 39 40
3.89350009 24.93639946 5.03989983 214 39 40
3.68790007 24.96120071 4.98829985 214 39 40
3.66339993 24.95709991 5.03369999 214 39 40
-0.54720002 24.96120071 5.02670002 214 39 40
3.31089997 24.94059944 5.03879976 214 39 40
2.93930006 24.92600060 5.03800011 214 39 40
3.73169994 24.96179962 4.97119999 214 39 40
1.78629994 24.95369911 5.03429985 214 39 40
3.98009992 24.96129990 5.02670002 214 39 40
2.88509989 24.97769928 4.91410017 214 39 40
2.73280001 24.96139908 4.96999979 214 39 40
3.07879996 24.96030045 5.00500011 214 39 40
0.10550000 24.96159935 5.00279999 214 39 40
2.88429999 24.95089912 4.94159985 214 39 40
3.68750000 24.96120071 5.00699997 214 39 40
3.63499999 24.96120071 5.01840019 214 39 40
-0.62309998 24.96010017 5.02239990 214 39 40
2.65790009 24.96069908 4.96190023 214 39 40
2.29080009 24.96080017 4.97690010 214 39 40
3.50929999 24.96089935 5.01940012 214 39 40
2.21970010 24.96080017 5.00089979 214 39 40
3.69359994 24.96139908 4.98810005 214 39 40
2.77679992 24.96229935 5.00269985 214 39 40
2.92449999 24.96100044 4.95819998 214 39 40
-0.28400001 24.96310043 5.00419998 214 39 40
-0.04730000 24.92980003 5.04010010 214 39 40
3.01259995 24.96089935 4.97720003 214 39 40
3.51200008 24.94330025 5.03889990 214 39 40
3.34800005 24.95919991 5.03009987 214 39 40
0.12500000 24.94980049 5.03770018 214 39 40
3.02920008 24.96109962 4.97569990 214 39 40
0.24089999 24.92329979 5.03919983 214 39 40
0.06900000 24.96179962 4.98000002 214 39 40
3.46519995 24.95619965 5.03399992 214 39 40
2.36279988 24.96059990 4.99399996 214 39 40
-0.15480000 24.96209908 5.01149988 214 39 40
3.15450001 24.96019936 5.02570009 214 39 40
0.13150001 24.96109962 5.02409983 214 39 40
-0.04710000 24.96139908 5.00810003 214 39 40
1.84420002 24.95849991 5.02059984 214 39 40
3.42750001 24.92980003 5.03910017 214 39 40
3.63499999 24.96100044 5.02510023 214 39 40
2.96729994 24.96109962 4.97459984 214 39 40
3.67179990 24.96170044 5.01650000 214 39 40
3.17289996 24.93129921 5.03929996 214 39 40
0.16339999 24.93499947 5.03950024 214 39 40
3.90799999 24.95730019 5.03469992 214 39 40
-0.56019998 24.96139908 5.02610016 214 39 40
3.30800009 24.95700073 5.03230000 214 39 40
0.76289999 24.95800018 5.02990007 214 39 40
2.86660004 24.94860077 4.93949986 214 39 40
3.48210001 24.96039963 5.02780008 214 39 40
1.38160002 24.96249962 4.95949984 214 39 40
2.15520000 24.94099998 5.03569984 214 39 40
2.22000003 24.96039963 5.01739979 214 39 40
2.98499990 24.93759918 5.03840017 214 39 40
0.14030001 24.95719910 5.03310013 214 39 40
3.19810009 24.91839981 5.03859997 214 39 40
3.55520010 24.96150017 4.98960018 214 39 40
2.03110003 24.96050072 5.00099993 214 39 40
2.46250010 24.96039963 4.98829985 214 39 40
2.37380004 24.96030045 4.99970007 214 39 40
-0.29620001 24.95260048 5.03849983 214 39 40
-0.00270000 24.96229935 4.96980000 214 39 40
0.07880000 24.96139908 4.98129988 214 39 40
3.77719998 24.96150017 4.96869993 214 39 40
3.42289996 24.95849991 5.03109980 214 39 40
4.09609985 24.92180061 5.03989983 214 39 40
4.11429977 24.92259979 5.03919983 214 39 40
4.12480021 24.92379951 5.03940010 214 39 40
3.96309996 24.91360092 5.03879976 214 39 40
4.02199984 24.92130089 5.03919983 214 39 40
4.03399992 24.92309952 5.03950024 214 39 40
4.04470015 24.92490005 5.03989983 214 39 40
4.05259991 24.92530060 5.03959990 214 39 40
4.08349991 24.92930031 5.04010010 214 39 40
4.09940004 24.93070030 5.03999996 214 39 40
4.10650015 24.93190002 5.04029989 214 39 40
4.12389994 24.93309975 5.03999996 214 39 40
3.93210006 24.91780090 5.03870010 214 39 40
3.93930006 24.91889954 5.03889990 214 39 40
3.98370004 24.92480087 5.03900003 214 39 40
3.99850011 24.92790031 5.03980017 214 39 40
4.00570011 24.92830086 5.03950024 214 39 40
4.01289988 24.92970085 5.03989983 214 39 40
4.04029989 24.93330002 5.04020023 214 39 40
4.08680010 24.93840027 5.04029989 214 39 40
3.93810010 24.92790031 5.03929996 214 39 40
3.95289993 24.92950058 5.03910017 214 39 40
3.96079993 24.93149948 5.03970003 214 39 40
3.98250008 24.93460083 5.03989983 214 39 40
3.99359989 24.93619919 5.04010010 214 39 40
4.06220007 24.94440079 5.04040003 214 39 40
4.07000017 24.94549942 5.04059982 214 39 40
4.10120010 24.94890022 5.04069996 214 39 40
4.11870003 24.95009995 5.04040003 214 39 40
4.13360023 24.95070076 5.03989983 214 39 40
3.82809997 24.92000008 5.03879976 214 39 40
3.84369993 24.92230034 5.03879976 214 39 40
3.85470009 24.92370033 5.03870010 214 39 40
3.86870003 24.92650032 5.03910017 214 39 40
3.88339996 24.92910004 5.03940010 214 39 40
3.89120007 24.93020058 5.03940010 214 39 40
3.91039991 24.93250084 5.03910017 214 39 40
3.95519996 24.93989944 5.04010010 214 39 40
3.96690011 24.94169998 5.04029989 214 39 40
3.98909998 24.94519997 5.04080009 214 39 40
3.99640012 24.94630051 5.04090023 214 39 40
4.00349998 24.94689941 5.04080009 214 39 40
4.03119993 24.94890022 5.03999996 214 39 40
4.04990005 24.95039940 5.03959990 214 39 40
4.06150007 24.95120049 5.03940010 214 39 40
4.08529997 24.95289993 5.03889990 214 39 40
4.10430002 24.95400047 5.03840017 214 39 40
4.11119986 24.95459938 5.03830004 214 39 40
4.11829996 24.95479965 5.03800011 214 39 40
4.12580013 24.95490074 5.03770018 214 39 40
3.78279996 24.92049980 5.03830004 214 39 40
3.88989997 24.93989944 5.04029989 214 39 40
3.90190005 24.94169998 5.04029989 214 39 40
3.90910006 24.94260025 5.04029989 214 39 40
3.92849994 24.94490051 5.03999996 214 39 40
3.94740009 24.94750023 5.04020023 214 39 40
3.95409989 24.94820023 5.04010010 214 39 40
3.96989989 24.94919968 5.03940010 214 39 40
3.99169993 24.95149994 5.03919983 214 39 40
4.00290012 24.95240021 5.03889990 214 39 40
4.03060007 24.95400047 5.03789997 214 39 40
4.03800011 24.95420074 5.03749990 214 39 40
4.12160015 24.95820045 5.03459978 214 39 40
3.62159991 24.89929962 5.03789997 214 39 40
3.72300005 24.91880035 5.03819990 214 39 40
3.73850012 24.92149925 5.03830004 214 39 40
3.74609995 24.92300034 5.03830004 214 39 40
3.75370002 24.92510033 5.03889990 214 39 40
3.76189995 24.92499924 5.03789997 214 39 40
3.76970005 24.92779922 5.03889990 214 39 40
3.78130007 24.92989922 5.03900003 214 39 40
3.79550004 24.93300056 5.03950024 214 39 40
3.80999994 24.93600082 5.03989983 214 39 40
3.82159996 24.93779945 5.03989983 214 39 40
3.93490005 24.95229912 5.03889990 214 39 40
3.94670010 24.95289993 5.03819990 214 39 40
3.98790002 24.95529938 5.03649998 214 39 40
4.01789999 24.95669937 5.03509998 214 39 40
4.06860018 24.95919991 5.03319979 214 39 40
3.66890001 24.91749954 5.03819990 214 39 40
3.70300007 24.92429924 5.03849983 214 39 40
3.71469998 24.92589951 5.03819990 214 39 40
3.72140002 24.92799950 5.03879976 214 39 40
3.79080009 24.94160080 5.03999996 214 39 40
3.82030010 24.94650078 5.04010010 214 39 40
3.84330010 24.94919968 5.03959990 214 39 40
3.85450006 24.94980049 5.03900003 214 39 40
3.88800001 24.95339966 5.03809977 214 39 40
3.89660001 24.95339966 5.03739977 214 39 40
3.91890001 24.95499992 5.03649998 214 39 40
3.92709994 24.95560074 5.03620005 214 39 40
3.93820000 24.95639992 5.03569984 214 39 40
3.95760012 24.95730019 5.03469992 214 39 40
3.97959995 24.95809937 5.03350019 214 39 40
4.04879999 24.96050072 5.03000021 214 39 40
3.71980000 24.93759918 5.03959990 214 39 40
3.75070000 24.94319916 5.03970003 214 39 40
3.77090001 24.94599915 5.03940010 214 39 40
3.77850008 24.94739914 5.03950024 214 39 40
3.78570008 24.94799995 5.03910017 214 39 40
3.80349994 24.95089912 5.03910017 214 39 40
3.82699990 24.95330048 5.03830004 214 39 40
3.83470011 24.95310020 5.03749990 214 39 40
3.84260011 24.95420074 5.03739977 214 39 40
3.85380006 24.95459938 5.03660011 214 39 40
3.87579989 24.95569992 5.03529978 214 39 40
3.91429996 24.95849991 5.03369999 214 39 40
3.93039989 24.95910072 5.03270006 214 39 40
3.96460009 24.96010017 5.03060007 214 39 40
3.99460006 24.96170044 5.02920008 214 39 40
3.60549998 24.92239952 5.03809977 214 39 40
3.63910007 24.93050003 5.03900003 214 39 40
3.77760005 24.95280075 5.03749990 214 39 40
3.81469989 24.95599937 5.03579998 214 39 40
3.87899995 24.95949936 5.03200006 214 39 40
3.89140010 24.95969963 5.03100014 214 39 40
3.94569993 24.96120071 5.02729988 214 39 40
3.98709989 24.96229935 5.02479982 214 39 40
3.52220011 24.91290092 5.03749990 214 39 40
3.58529997 24.92810059 5.03870010 214 39 40
3.59249997 24.92930031 5.03859997 214 39 40
3.61479998 24.93420029 5.03879976 214 39 40
3.62269998 24.93600082 5.03900003 214 39 40
3.63019991 24.93759918 5.03910017 214 39 40
3.65289998 24.94300079 5.03970003 214 39 40
3.67910004 24.94720078 5.03929996 214 39 40
3.69849992 24.94960022 5.03870010 214 39 40
3.71009994 24.95179939 5.03870010 214 39 40
3.72909999 24.95289993 5.03730011 214 39 40
3.75690007 24.95520020 5.03579998 214 39 40
3.83030009 24.95949936 5.03109980 214 39 40
3.86770010 24.96109962 5.02860022 214 39 40
3.88680005 24.96179962 5.02740002 214 39 40
3.89549994 24.96159935 5.02650023 214 39 40
3.92630005 24.96190071 5.02400017 214 39 40
3.96440005 24.96199989 5.02099991 214 39 40
3.98709989 24.96199989 5.01919985 214 39 40
3.52430010 24.92309952 5.03809977 214 39 40
3.56890011 24.93320084 5.03859997 214 39 40
3.57620001 24.93549919 5.03900003 214 39 40
3.60529995 24.94169998 5.03929996 214 39 40
3.65149999 24.95019913 5.03900003 214 39 40
3.75230002 24.95829964 5.03280020 214 39 40
3.79110003 24.96059990 5.03020000 214 39 40
3.85669994 24.96209908 5.02489996 214 39 40
3.88680005 24.96220016 5.02220011 214 39 40
3.89910007 24.96260071 5.02139997 214 39 40
3.95239997 24.96209908 5.01660013 214 39 40
3.99830008 24.96129990 5.01259995 214 39 40
4.04069996 24.96170044 5.00979996 214 39 40
4.09999990 24.96190071 5.00600004 214 39 40
3.41680002 24.90600014 5.03730011 214 39 40
3.45519996 24.91580009 5.03770018 214 39 40
3.48760009 24.92309952 5.03770018 214 39 40
3.51819992 24.93120003 5.03859997 214 39 40
3.58170009 24.94610023 5.03950024 214 39 40
3.70889997 24.95859909 5.03219986 214 39 40
3.84529996 24.96199989 5.02050018 214 39 40
4.02979994 24.96159935 5.00509977 214 39 40
4.06459999 24.96150017 5.00260019 214 39 40
4.09229994 24.96170044 5.00099993 214 39 40
4.09999990 24.96209908 5.00080013 214 39 40
4.11770010 24.96159935 4.99940014 214 39 40
4.12519979 24.96190071 4.99919987 214 39 40
4.14860010 24.96220016 4.99800014 214 39 40
3.46409988 24.92690086 5.03789997 214 39 40
3.47449994 24.92970085 5.03819990 214 39 40
3.48160005 24.93269920 5.03900003 214 39 40
3.49699998 24.93619919 5.03910017 214 39 40
3.51620007 24.94059944 5.03919983 214 39 40
3.52729988 24.94260025 5.03889990 214 39 40
3.54180002 24.94659996 5.03950024 214 39 40
3.54970002 24.94759941 5.03910017 214 39 40
3.56909990 24.95019913 5.03819990 214 39 40
3.58049989 24.95219994 5.03800011 214 39 40
3.59929991 24.95339966 5.03639984 214 39 40
3.61069989 24.95509911 5.03609991 214 39 40
3.71210003 24.96100044 5.02799988 214 39 40
3.71970010 24.96109962 5.02720022 214 39 40
3.72760010 24.96129990 5.02650023 214 39 40
3.78349996 24.96170044 5.02089977 214 39 40
3.79099989 24.96170044 5.02010012 214 39 40
3.86770010 24.96129990 5.01259995 214 39 40
3.89919996 24.96159935 5.01000023 214 39 40
3.95250010 24.96190071 5.00570011 214 39 40
3.97180009 24.96170044 5.00409985 214 39 40
4.04869986 24.96199989 4.99860001 214 39 40
4.06050014 24.96170044 4.99770021 214 39 40
4.08869982 24.96139908 4.99569988 214 39 40
4.11460018 24.96109962 4.99389982 214 39 40
3.38529992 24.91729927 5.03800011 214 39 40
3.40869999 24.92250061 5.03770018 214 39 40
3.42039990 24.92460060 5.03730011 214 39 40
3.58710003 24.95610046 5.03420019 214 39 40
3.59480000 24.95730019 5.03399992 214 39 40
3.61450005 24.95840073 5.03230000 214 39 40
3.63820004 24.95949936 5.03009987 214 39 40
3.66079998 24.96089935 5.02820015 214 39 40
3.76029992 24.96150017 5.01770020 214 39 40
3.76830006 24.96179962 5.01709986 214 39 40
3.77620006 24.96150017 5.01609993 214 39 40
3.94149995 24.96150017 5.00099993 214 39 40
3.95250010 24.96190071 5.00040007 214 39 40
3.96840000 24.96120071 4.99860001 214 39 40
3.97919989 24.96199989 4.99830008 214 39 40
4.06050014 24.96159935 4.99230003 214 39 40
4.10010004 24.96170044 4.98979998 214 39 40
3.34949994 24.91699982 5.03789997 214 39 40
3.37280011 24.92230034 5.03749990 214 39 40
3.40650010 24.93169975 5.03819990 214 39 40
3.41790009 24.93549919 5.03889990 214 39 40
3.47399998 24.94829941 5.03879976 214 39 40
3.53239989 24.95520020 5.03520012 214 39 40
3.54390001 24.95639992 5.03439999 214 39 40
3.56389999 24.95750046 5.03259993 214 39 40
3.57159996 24.95809937 5.03189993 214 39 40
3.61789989 24.96050072 5.02769995 214 39 40
3.62570000 24.96100044 5.02699995 214 39 40
3.67639995 24.96170044 5.02159977 214 39 40
3.70420003 24.96150017 5.01840019 214 39 40
3.76040006 24.96109962 5.01210022 214 39 40
3.76850009 24.96109962 5.01130009 214 39 40
3.77629995 24.96120071 5.01049995 214 39 40
3.81809998 24.96109962 5.00640011 214 39 40
3.88689995 24.96120071 5.00010014 214 39 40
3.92639995 24.96150017 4.99690008 214 39 40
3.96840000 24.96159935 4.99350023 214 39 40
4.01359987 24.96179962 4.99030018 214 39 40
4.09999990 24.96209908 4.98470020 214 39 40
3.36660004 24.93099976 5.03830004 214 39 40
3.37809992 24.93320084 5.03800011 214 39 40
3.40829992 24.94190025 5.03879976 214 39 40
3.45849991 24.95179939 5.03760004 214 39 40
3.48070002 24.95429993 5.03609991 214 39 40
3.49679995 24.95560074 5.03480005 214 39 40
3.51690006 24.95730019 5.03310013 214 39 40
3.52800012 24.95789909 5.03200006 214 39 40
3.55909991 24.95980072 5.02909994 214 39 40
3.58990002 24.96139908 5.02619982 214 39 40
3.61380005 24.96199989 5.02370024 214 39 40
3.64159989 24.96209908 5.02040005 214 39 40
3.64940000 24.96170044 5.01929998 214 39 40
3.68820000 24.96100044 5.01440001 214 39 40
3.76040006 24.96120071 5.00680017 214 39 40
3.80609989 24.96170044 5.00250006 214 39 40
3.90660000 24.96129990 4.99300003 214 39 40
3.94569993 24.96120071 4.98969984 214 39 40
3.97180009 24.96199989 4.98820019 214 39 40
4.00190020 24.96170044 4.98570013 214 39 40
4.04069996 24.96209908 4.98320007 214 39 40
4.08860016 24.96240044 4.98019981 214 39 40
3.29699993 24.92119980 5.03770018 214 39 40
3.31570005 24.92569923 5.03749990 214 39 40
3.34109998 24.93350029 5.03830004 214 39 40
3.36809993 24.94140053 5.03900003 214 39 40
3.37560010 24.94339943 5.03910017 214 39 40
3.38249993 24.94499969 5.03900003 214 39 40
3.40650010 24.94910049 5.03800011 214 39 40
3.41420007 24.95079994 5.03789997 214 39 40
3.43050003 24.95240021 5.03660011 214 39 40
3.44980001 24.95490074 5.03539991 214 39 40
3.47210002 24.95669937 5.03340006 214 39 40
3.48799992 24.95840073 5.03219986 214 39 40
3.50009990 24.95870018 5.03079987 214 39 40
3.54299998 24.96080017 5.02640009 214 39 40
3.55080009 24.96129990 5.02570009 214 39 40
3.57480001 24.96170044 5.02290010 214 39 40
3.58220005 24.96209908 5.02220011 214 39 40
3.61770010 24.96159935 5.01760006 214 39 40
3.70020008 24.96100044 5.00769997 214 39 40
3.81389999 24.96129990 4.99609995 214 39 40
3.87120008 24.96190071 4.99109983 214 39 40
3.99060011 24.96170044 4.98120022 214 39 40
4.04879999 24.96170044 4.97709990 214 39 40
4.10739994 24.96120071 4.97300005 214 39 40
4.12869978 24.96139908 4.97189999 214 39 40
3.27970004 24.92550087 5.03760004 214 39 40
3.30920005 24.93490028 5.03859997 214 39 40
3.32800007 24.93910027 5.03830004 214 39 40
3.36630011 24.94849968 5.03809977 214 39 40
3.43379998 24.95680046 5.03329992 214 39 40
3.44540000 24.95820045 5.03249979 214 39 40
3.49569988 24.96050072 5.02699995 214 39 40
3.55870008 24.96159935 5.01949978 214 39 40
3.57089996 24.96159935 5.01789999 214 39 40
3.58999991 24.96109962 5.01520014 214 39 40
3.64580011 24.96139908 5.00869989 214 39 40
3.79110003 24.96120071 4.99289989 214 39 40
3.82590008 24.96139908 4.98960018 214 39 40
3.91400003 24.96159935 4.98190022 214 39 40
3.96840000 24.96150017 4.97749996 214 39 40
4.00190020 24.96170044 4.97499990 214 39 40
4.01359987 24.96170044 4.97419977 214 39 40
4.02979994 24.96199989 4.97319984 214 39 40
3.34509993 24.95079994 5.03730011 214 39 40
3.38820004 24.95630074 5.03420019 214 39 40
3.54279995 24.96179962 5.01620007 214 39 40
3.55879998 24.96150017 5.01389980 214 39 40
3.60560012 24.96080017 5.00780010 214 39 40
3.62570000 24.96120071 5.00549984 214 39 40
3.71569991 24.96100044 4.99520016 214 39 40
3.72770000 24.96100044 4.99389982 214 39 40
3.78369999 24.96100044 4.98820019 214 39 40
3.81800008 24.96159935 4.98519993 214 39 40
3.82590008 24.96120071 4.98409986 214 39 40
3.20700002 24.92320061 5.03739977 214 39 40
3.21840000 24.92630005 5.03730011 214 39 40
3.22620010 24.92930031 5.03779984 214 39 40
3.24169993 24.93449974 5.03840017 214 39 40
3.24880004 24.93580055 5.03800011 214 39 40
3.28590012 24.94680023 5.03859997 214 39 40
3.31690001 24.95190048 5.03679991 214 39 40
3.33220005 24.95400047 5.03569984 214 39 40
3.36789989 24.95759964 5.03249979 214 39 40
3.37930012 24.95820045 5.03119993 214 39 40
3.39569998 24.95940018 5.02950001 214 39 40
3.40790009 24.95969963 5.02790022 214 39 40
3.43280005 24.96129990 5.02530003 214 39 40
3.51169991 24.96170044 5.01480007 214 39 40
3.52340007 24.96120071 5.01289988 214 39 40
3.55080009 24.96109962 5.00930023 214 39 40
3.55879998 24.96120071 5.00839996 214 39 40
3.59410000 24.96129990 5.00409985 214 39 40
3.60150003 24.96109962 5.00299978 214 39 40
3.62570000 24.96129990 5.00019979 214 39 40
3.66499996 24.96150017 4.99580002 214 39 40
3.76430011 24.96120071 4.98490000 214 39 40
3.85680008 24.96159935 4.97620010 214 39 40
3.17170000 24.92250061 5.03749990 214 39 40
3.18309999 24.92600060 5.03760004 214 39 40
3.19729996 24.93070030 5.03800011 214 39 40
3.21180010 24.93479919 5.03809977 214 39 40
3.21970010 24.93720055 5.03819990 214 39 40
3.22790003 24.93959999 5.03819990 214 39 40
3.24990010 24.94639969 5.03870010 214 39 40
3.25769997 24.94820023 5.03859997 214 39 40
3.35960007 24.95929909 5.02939987 214 39 40
3.44479990 24.96109962 5.01809978 214 39 40
3.53889990 24.96109962 5.00549984 214 39 40
3.56310010 24.96150017 5.00260019 214 39 40
3.59410000 24.96120071 4.99860001 214 39 40
3.63790011 24.96109962 4.99329996 214 39 40
3.67280006 24.96069908 4.98899984 214 39 40
3.80609989 24.96159935 4.97559977 214 39 40
3.06419992 24.89739990 5.03630018 214 39 40
3.13610005 24.92029953 5.03690004 214 39 40
3.20199990 24.94129944 5.03809977 214 39 40
3.20919991 24.94409943 5.03859997 214 39 40
3.21729994 24.94580078 5.03819990 214 39 40
3.32279992 24.95969963 5.02969980 214 39 40
3.43289995 24.96080017 5.01410007 214 39 40
3.44479990 24.96100044 5.01259995 214 39 40
3.45230007 24.96100044 5.01149988 214 39 40
3.47539997 24.96059990 5.00810003 214 39 40
3.52729988 24.96139908 5.00169992 214 39 40
3.56690001 24.96129990 4.99660015 214 39 40
3.59010005 24.96089935 4.99350023 214 39 40
3.59789991 24.96109962 4.99270010 214 39 40
3.60540009 24.96159935 4.99200010 214 39 40
3.62159991 24.96120071 4.98990011 214 39 40
3.68420005 24.96150017 4.98290014 214 39 40
3.74769998 24.96139908 4.97599983 214 39 40
3.10010004 24.91839981 5.03669977 214 39 40
3.10730004 24.92149925 5.03730011 214 39 40
3.12969995 24.92849922 5.03749990 214 39 40
3.18149996 24.94510078 5.03840017 214 39 40
3.21560001 24.95219994 5.03690004 214 39 40
3.29500008 24.95949936 5.02850008 214 39 40
3.33430004 24.96080017 5.02320004 214 39 40
3.36330009 24.96109962 5.01900005 214 39 40
3.42449999 24.96120071 5.01020002 214 39 40
3.44479990 24.96120071 5.00729990 214 39 40
3.49559999 24.96120071 5.00040007 214 39 40
3.53880000 24.96150017 4.99490023 214 39 40
3.57500005 24.96109962 4.99009991 214 39 40
3.59410000 24.96139908 4.98789978 214 39 40
3.60150003 24.96120071 4.98689985 214 39 40
3.61400008 24.96139908 4.98549986 214 39 40
3.69639993 24.96179962 4.97629976 214 39 40
3.07719994 24.92130089 5.03719997 214 39 40
3.10840011 24.93169975 5.03770018 214 39 40
3.11549997 24.93519974 5.03849983 214 39 40
3.12689996 24.93829918 5.03830004 214 39 40
3.15669990 24.94729996 5.03849983 214 39 40
3.17969990 24.95149994 5.03700018 214 39 40
3.19449997 24.95359993 5.03579998 214 39 40
3.20230007 24.95459938 5.03509998 214 39 40
3.21889997 24.95599937 5.03319979 214 39 40
3.23110008 24.95770073 5.03219986 214 39 40
3.24259996 24.95859909 5.03079987 214 39 40
3.25060010 24.95890045 5.02969980 214 39 40
3.29069996 24.96089935 5.02449989 214 39 40
3.34240007 24.96170044 5.01700020 214 39 40
3.35060000 24.96150017 5.01569986 214 39 40
3.41190004 24.96109962 5.00649977 214 39 40
3.43670011 24.96159935 5.00330019 214 39 40
3.44479990 24.96120071 5.00190020 214 39 40
3.47119999 24.96109962 4.99819994 214 39 40
3.62579989 24.96120071 4.97860003 214 39 40
3.01449990 24.90940094 5.03630018 214 39 40
3.06699991 24.92810059 5.03760004 214 39 40
3.14310002 24.95070076 5.03730011 214 39 40
3.15499997 24.95280075 5.03660011 214 39 40
3.18239999 24.95590019 5.03369999 214 39 40
3.29069996 24.96109962 5.01919985 214 39 40
3.35920000 24.96129990 5.00890017 214 39 40
3.44479990 24.96100044 4.99639988 214 39 40
3.45639992 24.96120071 4.99490023 214 39 40
3.47129989 24.96059990 4.99249983 214 39 40
3.50390005 24.96129990 4.98850012 214 39 40
3.51180005 24.96109962 4.98740005 214 39 40
3.53130007 24.96109962 4.98479986 214 39 40
3.55460000 24.96150017 4.98210001 214 39 40
3.61400008 24.96120071 4.97469997 214 39 40
3.62159991 24.96139908 4.97380018 214 39 40
3.03049994 24.92550087 5.03719997 214 39 40
3.04530001 24.93090057 5.03770018 214 39 40
3.05270004 24.93440056 5.03840017 214 39 40
3.06030011 24.93589973 5.03789997 214 39 40
3.06739998 24.93899918 5.03840017 214 39 40
3.07529998 24.94179916 5.03870010 214 39 40
3.10330009 24.94869995 5.03770018 214 39 40
3.13470006 24.95339966 5.03490019 214 39 40
3.14980006 24.95579910 5.03369999 214 39 40
3.20479989 24.96010017 5.02699995 214 39 40
3.25830007 24.96109962 5.01889992 214 39 40
3.27440000 24.96100044 5.01620007 214 39 40
3.29450011 24.96120071 5.01319981 214 39 40
3.32660007 24.96069908 5.00799990 214 39 40
3.34260011 24.96089935 5.00570011 214 39 40
3.39120007 24.96129990 4.99879980 214 39 40
3.42020011 24.96069908 4.99420023 214 39 40
3.45639992 24.96129990 4.98960018 214 39 40
3.48350000 24.96109962 4.98570013 214 39 40
3.49160004 24.96100044 4.98460007 214 39 40
3.51180005 24.96159935 4.98229980 214 39 40
3.54290009 24.96159935 4.97830009 214 39 40
3.55080009 24.96139908 4.97720003 214 39 40
3.56690001 24.96150017 4.97520018 214 39 40
3.59419990 24.96089935 4.97149992 214 39 40
2.98720002 24.91959953 5.03649998 214 39 40
3.00139999 24.92569923 5.03730011 214 39 40
3.02780008 24.93420029 5.03739977 214 39 40
3.03500009 24.93709946 5.03779984 214 39 40
3.05010009 24.94300079 5.03840017 214 39 40
3.16100001 24.95999908 5.02890015 214 39 40
3.27460003 24.96039963 5.01039982 214 39 40
3.32649994 24.96089935 5.00269985 214 39 40
3.34249997 24.96139908 5.00059986 214 39 40
3.42470002 24.96069908 4.98820019 214 39 40
3.43280005 24.96150017 4.98759985 214 39 40
3.47110009 24.96159935 4.98239994 214 39 40
3.47919989 24.96139908 4.98110008 214 39 40
3.48749995 24.96139908 4.98000002 214 39 40
3.51169991 24.96179962 4.97709990 214 39 40
3.53880000 24.96159935 4.97340012 214 39 40
3.83999991 24.92009926 4.91510010 214 39 40
2.96530008 24.92239952 5.03679991 214 39 40
2.99160004 24.93129921 5.03700018 214 39 40
3.00200009 24.93619919 5.03789997 214 39 40
3.02139997 24.94219971 5.03779984 214 39 40
3.03230000 24.94569969 5.03779984 214 39 40
3.05570006 24.95100021 5.03669977 214 39 40
3.10470009 24.95739937 5.03160000 214 39 40
3.12470007 24.95910072 5.02909994 214 39 40
3.16479993 24.96109962 5.02339983 214 39 40
3.25839996 24.96059990 5.00769997 214 39 40
3.29460001 24.96120071 5.00229979 214 39 40
3.32249999 24.96129990 4.99809980 214 39 40
3.34249997 24.96159935 4.99529982 214 39 40
3.37879992 24.96069908 4.98939991 214 39 40
3.44059992 24.96120071 4.98089981 214 39 40
3.01069999 24.94750023 5.03739977 214 39 40
3.06220007 24.95590019 5.03289986 214 39 40
3.08369994 24.95809937 5.03030014 214 39 40
3.11260009 24.96030045 5.02650023 214 39 40
3.12019992 24.96089935 5.02549982 214 39 40
3.13240004 24.96120071 5.02360010 214 39 40
3.14840007 24.96089935 5.02059984 214 39 40
3.19650006 24.96109962 5.01259995 214 39 40
3.24200010 24.96100044 5.00509977 214 39 40
3.25000000 24.96120071 5.00390005 214 39 40
3.31110001 24.96089935 4.99420023 214 39 40
3.35920000 24.96150017 4.98729992 214 39 40
3.42849994 24.96129990 4.97720003 214 39 40
3.46399999 24.96159935 4.97249985 214 39 40
3.72359991 24.91710091 4.91429996 214 39 40
2.92529988 24.92840004 5.03719997 214 39 40
2.93700004 24.93300056 5.03749990 214 39 40
2.95549989 24.94009972 5.03809977 214 39 40
3.00090003 24.95159912 5.03620005 214 39 40
3.02119994 24.95520020 5.03450012 214 39 40
3.04949999 24.95820045 5.03100014 214 39 40
3.07459998 24.96010017 5.02759981 214 39 40
3.09159994 24.96059990 5.02489996 214 39 40
3.12010002 24.96120071 5.02019978 214 39 40
3.14840007 24.96089935 5.01520014 214 39 40
3.16079998 24.96080017 5.01300001 214 39 40
3.17330003 24.96059990 5.01070023 214 39 40
3.26640010 24.96109962 4.99580002 214 39 40
3.31879997 24.96120071 4.98780012 214 39 40
3.34660006 24.96100044 4.98350000 214 39 40
3.37870002 24.96129990 4.97889996 214 39 40
3.42459989 24.96129990 4.97240019 214 39 40
3.43680000 24.96109962 4.97060013 214 39 40
-0.07150000 24.92440033 5.03989983 214 39 40
2.86310005 24.91480064 5.03620005 214 39 40
2.87479997 24.91880035 5.03609991 214 39 40
2.88579988 24.92410088 5.03700018 214 39 40
2.90030003 24.92900085 5.03690004 214 39 40
2.91140008 24.93339920 5.03730011 214 39 40
2.92219996 24.93770027 5.03760004 214 39 40
3.01239991 24.95680046 5.03149986 214 39 40
3.06080008 24.96069908 5.02489996 214 39 40
3.06970000 24.96050072 5.02320004 214 39 40
3.07900000 24.96059990 5.02159977 214 39 40
3.14019990 24.96089935 5.01109982 214 39 40
3.15650010 24.96109962 5.00850010 214 39 40
3.17709994 24.96080017 5.00479984 214 39 40
3.18519998 24.96050072 5.00330019 214 39 40
3.20460010 24.96109962 5.00040007 214 39 40
3.25839996 24.96080017 4.99149990 214 39 40
3.37870002 24.96109962 4.97340012 214 39 40
2.83789992 24.91600037 5.03649998 214 39 40
2.85249996 24.92160034 5.03679991 214 39 40
2.85980010 24.92429924 5.03690004 214 39 40
2.87490010 24.93040085 5.03730011 214 39 40
2.89389992 24.93670082 5.03719997 214 39 40
2.92300010 24.94799995 5.03789997 214 39 40
3.03620005 24.96019936 5.02370024 214 39 40
3.04460001 24.96069908 5.02239990 214 39 40
3.14450002 24.96050072 5.00470018 214 39 40
3.18889999 24.96089935 4.99739981 214 39 40
3.21329999 24.96080017 4.99340010 214 39 40
3.22589993 24.96129990 4.99160004 214 39 40
3.27880001 24.96100044 4.98299980 214 39 40
3.34260011 24.96109962 4.97329998 214 39 40
3.91639996 24.97559929 4.91580009 214 39 40
2.81609988 24.91799927 5.03669977 214 39 40
2.82389998 24.92070007 5.03660011 214 39 40
2.83470011 24.92499924 5.03690004 214 39 40
2.84570003 24.92860031 5.03660011 214 39 40
2.85640001 24.93409920 5.03770018 214 39 40
2.86800003 24.93829918 5.03770018 214 39 40
2.87570000 24.94099998 5.03779984 214 39 40
2.89089990 24.94549942 5.03730011 214 39 40
2.92140007 24.95280075 5.03550005 214 39 40
3.03609991 24.96050072 5.01840019 214 39 40
3.05270004 24.96059990 5.01539993 214 39 40
3.08730006 24.96100044 5.00950003 214 39 40
3.18880010 24.96100044 4.99209976 214 39 40
3.19650006 24.96109962 4.99090004 214 39 40
3.22210002 24.96080017 4.98649979 214 39 40
3.32270002 24.96050072 4.97060013 214 39 40
2.80189991 24.92239952 5.03660011 214 39 40
2.81279993 24.92729950 5.03719997 214 39 40
2.82369995 24.93169975 5.03739977 214 39 40
2.84200001 24.93919945 5.03800011 214 39 40
2.85710001 24.94440079 5.03789997 214 39 40
2.87319994 24.94840050 5.03700018 214 39 40
2.89229989 24.95260048 5.03560019 214 39 40
2.91210008 24.95549965 5.03340006 214 39 40
2.92429996 24.95680046 5.03179979 214 39 40
2.96149993 24.95969963 5.02629995 214 39 40
3.01939988 24.96100044 5.01620007 214 39 40
3.02749991 24.96100044 5.01480007 214 39 40
3.06089997 24.96019936 5.00820017 214 39 40
3.09559989 24.96089935 5.00250006 214 39 40
3.10380006 24.96059990 5.00089979 214 39 40
3.19650006 24.96129990 4.98559999 214 39 40
3.24200010 24.96109962 4.97800016 214 39 40
3.25009990 24.96109962 4.97669983 214 39 40
2.76909995 24.91990089 5.03660011 214 39 40
2.77979994 24.92460060 5.03700018 214 39 40
2.80940008 24.93670082 5.03770018 214 39 40
2.82820010 24.94319916 5.03760004 214 39 40
2.85899997 24.95140076 5.03599977 214 39 40
2.87549996 24.95389938 5.03420019 214 39 40
2.94029999 24.96019936 5.02510023 214 39 40
3.02410007 24.96039963 5.00950003 214 39 40
3.04460001 24.96089935 5.00610018 214 39 40
3.07900000 24.96059990 4.99980021 214 39 40
3.08719993 24.96120071 4.99870014 214 39 40
3.20050001 24.96120071 4.97940016 214 39 40
2.76180005 24.92720032 5.03669977 214 39 40
2.77640009 24.93409920 5.03760004 214 39 40
2.79130006 24.94009972 5.03789997 214 39 40
2.81760001 24.94869995 5.03739977 214 39 40
2.87829995 24.95789909 5.03039980 214 39 40
2.94400001 24.96109962 5.01949978 214 39 40
2.97410011 24.96019936 5.01329994 214 39 40
3.01119995 24.96069908 5.00659990 214 39 40
3.09559989 24.96080017 4.99149990 214 39 40
3.11610007 24.96080017 4.98799992 214 39 40
3.14030004 24.96080017 4.98379993 214 39 40
3.17319989 24.96109962 4.97840023 214 39 40
3.18109989 24.96069908 4.97690010 214 39 40
3.22210002 24.96089935 4.97030020 214 39 40
3.71289992 24.97809982 4.91499996 214 39 40
3.95390010 25.01689911 4.91650009 214 39 40
2.72070003 24.92110062 5.03649998 214 39 40
2.73250008 24.92609978 5.03679991 214 39 40
2.74070001 24.92830086 5.03630018 214 39 40
2.75440001 24.93569946 5.03760004 214 39 40
2.78850007 24.94779968 5.03730011 214 39 40
2.79620004 24.94949913 5.03669977 214 39 40
2.80419993 24.95120049 5.03599977 214 39 40
2.81229997 24.95310020 5.03539991 214 39 40
2.82820010 24.95529938 5.03350019 214 39 40
2.84010005 24.95680046 5.03189993 214 39 40
2.91440010 24.96089935 5.01959991 214 39 40
2.92779994 24.96069908 5.01690006 214 39 40
3.03130007 24.96069908 4.99749994 214 39 40
3.04859996 24.96100044 4.99450016 214 39 40
3.06509995 24.96100044 4.99160004 214 39 40
3.11249995 24.96100044 4.98320007 214 39 40
3.19269991 24.96019936 4.96929979 214 39 40
2.71729994 24.93029976 5.03690004 214 39 40
2.72469997 24.93359947 5.03719997 214 39 40
2.73699999 24.93810081 5.03709984 214 39 40
2.75119996 24.94449997 5.03770018 214 39 40
2.76270008 24.94799995 5.03730011 214 39 40
2.78660011 24.95280075 5.03499985 214 39 40
2.80290008 24.95499992 5.03289986 214 39 40
2.82299995 24.95800018 5.03049994 214 39 40
2.86039996 24.96019936 5.02430010 214 39 40
3.08730006 24.96100044 4.98220015 214 39 40
3.12430000 24.96080017 4.97569990 214 39 40
2.68720007 24.92799950 5.03660011 214 39 40
2.69849992 24.93330002 5.03709984 214 39 40
2.71359992 24.93989944 5.03760004 214 39 40
2.78119993 24.95569992 5.03230000 214 39 40
2.81010008 24.95919991 5.02829981 214 39 40
2.85150003 24.96039963 5.02059984 214 39 40
2.87730002 24.96089935 5.01580000 214 39 40
2.88569999 24.96089935 5.01420021 214 39 40
2.93580008 24.96089935 5.00449991 214 39 40
2.96939993 24.96089935 4.99809980 214 39 40
3.01130009 24.96030045 4.98999977 214 39 40
3.07470012 24.96019936 4.97849989 214 39 40
3.08719993 24.96129990 4.97700024 214 39 40
3.43219995 24.94589996 4.91400003 214 39 40
3.77889991 25.01749992 4.91590023 214 39 40
2.70330000 24.94529915 5.03730011 214 39 40
2.72749996 24.95190048 5.03579998 214 39 40
2.73589993 24.95310020 5.03469992 214 39 40
2.74340010 24.95429993 5.03380013 214 39 40
2.78850007 24.95949936 5.02740002 214 39 40
2.79670000 24.95960045 5.02580023 214 39 40
2.83439994 24.96080017 5.01879978 214 39 40
2.90229988 24.96030045 5.00509977 214 39 40
2.91880012 24.96069908 5.00209999 214 39 40
2.98580003 24.96089935 4.98960018 214 39 40
3.00670004 24.96039963 4.98540020 214 39 40
3.07459998 24.96069908 4.97340012 214 39 40
3.09150004 24.96089935 4.97060013 214 39 40
3.42650008 24.95369911 4.91410017 214 39 40
3.46379995 24.96290016 4.91440010 214 39 40
2.68829989 24.94860077 5.03679991 214 39 40
2.70090008 24.95140076 5.03569984 214 39 40
2.72169995 24.95479965 5.03319979 214 39 40
2.76259995 24.95940018 5.02720022 214 39 40
2.77539992 24.96030045 5.02500010 214 39 40
2.78390002 24.96039963 5.02330017 214 39 40
2.79209995 24.96080017 5.02190018 214 39 40
2.82200003 24.96069908 5.01569986 214 39 40
2.83080006 24.96039963 5.01380014 214 39 40
2.86450005 24.96059990 5.00719976 214 39 40
2.90680003 24.96039963 4.99879980 214 39 40
3.03990006 24.96139908 4.97450018 214 39 40
3.05270004 24.96100044 4.97200012 214 39 40
3.06550002 24.95999908 4.96920013 214 39 40
3.25370002 24.91830063 4.91359997 214 39 40
2.70729995 24.95660019 5.03170013 214 39 40
2.76670003 24.96050072 5.02139997 214 39 40
2.77519989 24.96089935 5.01989985 214 39 40
2.78810000 24.96059990 5.01709986 214 39 40
2.79640007 24.96050072 5.01529980 214 39 40
2.81340003 24.96050072 5.01179981 214 39 40
2.83089995 24.96010017 5.00810003 214 39 40
2.84719992 24.96050072 5.00509977 214 39 40
2.91050005 24.96039963 4.99259996 214 39 40
2.91880012 24.96059990 4.99109983 214 39 40
2.93149996 24.96039963 4.98859978 214 39 40
2.94880009 24.96050072 4.98530006 214 39 40
2.97770000 24.96109962 4.98029995 214 39 40
3.02399993 24.96080017 4.97160006 214 39 40
2.71980000 24.96010017 5.02549982 214 39 40
2.78369999 24.96109962 5.01270008 214 39 40
2.79640007 24.96050072 5.00979996 214 39 40
2.86039996 24.96050072 4.99690008 214 39 40
2.88170004 24.96059990 4.99280024 214 39 40
2.90210009 24.96100044 4.98909998 214 39 40
2.93140006 24.96080017 4.98339987 214 39 40
2.97399998 24.96069908 4.97529984 214 39 40
2.98580003 24.96089935 4.97319984 214 39 40
3.36209989 24.96629906 4.91450024 214 39 40
3.49990010 24.99889946 4.91480017 214 39 40
2.69289994 24.95989990 5.02559996 214 39 40
2.71050000 24.96030045 5.02209997 214 39 40
2.74119997 24.96039963 5.01569986 214 39 40
2.75419998 24.96050072 5.01300001 214 39 40
2.80089998 24.96039963 5.00330019 214 39 40
2.82629991 24.96069908 4.99840021 214 39 40
2.84310007 24.96069908 4.99499989 214 39 40
2.87319994 24.96069908 4.98909998 214 39 40
2.92300010 24.96080017 4.97949982 214 39 40
2.94400001 24.96129990 4.97580004 214 39 40
3.42969990 24.99239922 4.91489983 214 39 40
3.50149989 25.00950050 4.91550016 214 39 40
2.68390012 24.96010017 5.02209997 214 39 40
2.72429991 24.96050072 5.01370001 214 39 40
2.74519992 24.96059990 5.00939989 214 39 40
2.75819993 24.96050072 5.00670004 214 39 40
2.76679993 24.96019936 5.00470018 214 39 40
2.78399992 24.96030045 5.00120020 214 39 40
2.79649997 24.96039963 4.99870014 214 39 40
2.80500007 24.96089935 4.99730015 214 39 40
2.81329989 24.96080017 4.99560022 214 39 40
2.84699988 24.96109962 4.98899984 214 39 40
2.86439991 24.96080017 4.98540020 214 39 40
2.92319989 24.96039963 4.97380018 214 39 40
2.94420004 24.96069908 4.96999979 214 39 40
3.11719990 24.91609955 4.91340017 214 39 40
3.40400004 24.99500084 4.91459990 214 39 40
2.70149994 24.96089935 5.01319981 214 39 40
2.71050000 24.96030045 5.01100016 214 39 40
2.72869992 24.96039963 5.00719976 214 39 40
2.73709989 24.96030045 5.00540018 214 39 40
2.74950004 24.96050072 5.00290012 214 39 40
2.77049994 24.96080017 4.99879980 214 39 40
2.78399992 24.96019936 4.99569988 214 39 40
2.81789994 24.96050072 4.98899984 214 39 40
2.82629991 24.96069908 4.98740005 214 39 40
2.85570002 24.96109962 4.98180008 214 39 40
2.90229988 24.96059990 4.97240019 214 39 40
3.02300000 24.89679909 4.91379976 214 39 40
2.74110007 24.96050072 4.99919987 214 39 40
2.74950004 24.96059990 4.99749994 214 39 40
2.76659989 24.96089935 4.99410009 214 39 40
2.78379989 24.96069908 4.99049997 214 39 40
2.79220009 24.96059990 4.98869991 214 39 40
2.80080009 24.96089935 4.98710012 214 39 40
2.83450007 24.96050072 4.98019981 214 39 40
2.84719992 24.96039963 4.97760010 214 39 40
2.86019993 24.96089935 4.97529984 214 39 40
2.87330008 24.96069908 4.97270012 214 39 40
2.99049997 24.89640045 4.91410017 214 39 40
3.09699988 24.92919922 4.91370010 214 39 40
2.68810010 24.96059990 5.00489998 214 39 40
2.70160007 24.96080017 5.00209999 214 39 40
2.71950006 24.96080017 4.99830008 214 39 40
2.74530005 24.96039963 4.99280024 214 39 40
2.77970004 24.96010017 4.98549986 214 39 40
2.78819990 24.96069908 4.98409986 214 39 40
2.80100012 24.96019936 4.98129988 214 39 40
2.80960011 24.96080017 4.97989988 214 39 40
2.83450007 24.96059990 4.97469997 214 39 40
2.84299994 24.96100044 4.97329998 214 39 40
2.85139990 24.96100044 4.97170019 214 39 40
3.07410002 24.93219948 4.91400003 214 39 40
3.21429992 24.97319984 4.91400003 214 39 40
2.73320007 24.96059990 4.98990011 214 39 40
2.74099994 24.96089935 4.98839998 214 39 40
2.77080011 24.96010017 4.98180008 214 39 40
2.78819990 24.96059990 4.97860003 214 39 40
2.79649997 24.96050072 4.97690010 214 39 40
2.81329989 24.96089935 4.97370005 214 39 40
2.82640004 24.96080017 4.97100019 214 39 40
2.83480000 24.95980072 4.96880007 214 39 40
3.06769991 24.93880081 4.91349983 214 39 40
3.10310006 24.95000076 4.91379976 214 39 40
2.72429991 24.96059990 4.98619986 214 39 40
2.73709989 24.96059990 4.98360014 214 39 40
2.77950001 24.96069908 4.97489977 214 39 40
2.79640007 24.96069908 4.97149992 214 39 40
2.80520010 24.96039963 4.96950006 214 39 40
2.71050000 24.96039963 4.98350000 214 39 40
2.71950006 24.96100044 4.98190022 214 39 40
2.76200008 24.96109962 4.97319984 214 39 40
2.87400007 24.89640045 4.91480017 214 39 40
2.69749999 24.96050072 4.98080015 214 39 40
2.72860003 24.96080017 4.97440004 214 39 40
2.75440001 24.96019936 4.96880007 214 39 40
2.84489989 24.89649963 4.91529989 214 39 40
3.19230008 25.00569916 4.91459990 214 39 40
3.21239996 25.01119995 4.91450024 214 39 40
2.67459989 24.96080017 4.98029995 214 39 40
2.71040010 24.96069908 4.97270012 214 39 40
2.71959996 24.96080017 4.97090006 214 39 40
2.70180011 24.96030045 4.96880007 214 39 40
2.83270001 24.90679932 4.91260004 214 39 40
3.04279995 24.98010063 4.91429996 214 39 40
2.76920009 24.89640045 4.91429996 214 39 40
2.90420008 24.94300079 4.91340017 214 39 40
2.78530002 24.91010094 4.91309977 214 39 40
2.81890011 24.92239952 4.91319990 214 39 40
2.84470010 24.93180084 4.91330004 214 39 40
2.74609995 24.91419983 4.91260004 214 39 40
2.81660008 24.94149971 4.91340017 214 39 40
2.95939994 24.99200058 4.91419983 214 39 40
2.94160008 24.99510002 4.91370010 214 39 40
2.93079996 25.00160027 4.91389990 214 39 40
2.93860006 25.00410080 4.91379976 214 39 40
2.96120000 25.01230049 4.91429996 214 39 40
2.92770004 25.01079941 4.91410017 214 39 40
2.69930005 24.97820091 4.91349983 214 39 40
2.79830003 25.01600075 4.91419983 214 39 40
2.68849993 24.98439980 4.91359997 214 39 40
2.66599989 25.00720024 4.91400003 214 39 40
2.68190002 25.01309967 4.91389990 214 39 40
2.38260007 24.96050072 4.91289997 214 39 40
2.35520005 24.99230003 4.91349983 214 39 40
2.29579997 24.99810028 4.91359997 214 39 40
4.03709984 24.96120071 4.97739983 214 39 40
2.10290003 24.92919922 5.03639984 214 39 40
2.50749993 24.93239975 5.03690004 214 39 40
1.79879999 24.96019936 5.02250004 214 39 40
0.41990000 24.94980049 5.03779984 214 39 40
1.95879996 24.95890045 5.02409983 214 39 40
2.34200001 24.96080017 4.97389984 214 39 40
3.33640003 24.96109962 4.98430014 214 39 40
3.87380004 24.95980072 5.03060007 214 39 40
0.32550001 24.95649910 5.03410006 214 39 40
2.06780005 24.93280029 5.03679991 214 39 40
0.00540000 24.95919991 5.03140020 214 39 40
2.13649988 24.96059990 4.97770023 214 39 40
2.27999997 24.95079994 5.03480005 214 39 40
3.35339999 24.96120071 4.97629976 214 39 40
2.50970006 24.96039963 5.01060009 214 39 40
3.45689988 24.93619919 5.03970003 214 39 40
1.79849994 24.95210075 5.03369999 214 39 40
0.17870000 24.96150017 5.00470018 214 39 40
-0.59619999 24.96179962 5.02419996 214 39 40
2.67610002 24.96089935 4.97410011 214 39 40
3.26500010 24.93289948 5.03919983 214 39 40
3.64779997 24.96129990 4.99069977 214 39 40
2.99580002 24.96089935 4.95830011 214 39 40
4.07929993 24.96159935 5.00290012 214 39 40
-0.42539999 24.96260071 4.97100019 214 39 40
3.41919994 24.90360069 4.92100000 214 39 40
4.05410004 24.96159935 4.97690010 214 39 40
0.23459999 24.96129990 5.01289988 214 39 40
1.92729998 24.96050072 4.99039984 214 39 40
3.04509997 24.91810036 5.03840017 214 39 40
-0.47270000 24.92530060 4.92379999 214 39 40
0.31990001 24.96170044 5.00799990 214 39 40
1.94869995 24.96010017 5.01929998 214 39 40
0.74199998 24.92560005 5.03660011 214 39 40
2.26119995 24.96080017 4.96689987 214 39 40
-0.41110000 24.96229935 5.02199984 214 39 40
0.34850001 24.92770004 5.03889990 214 39 40
3.41630006 24.96080017 4.97840023 214 39 40
3.39910007 24.96150017 4.97310019 214 39 40
2.61669993 24.93239975 5.03690004 214 39 40
-0.30970001 24.96260071 4.95230007 214 39 40
0.05960000 24.96139908 4.98729992 214 39 40
3.40510011 24.96150017 5.02010012 214 39 40
-0.28130001 24.92519951 4.92180014 214 39 40
2.93109989 24.96089935 4.97119999 214 39 40
3.37150002 24.95999908 5.02869987 214 39 40
3.46429992 24.96100044 5.00890017 214 39 40
3.71079993 24.96150017 5.02099991 214 39 40
4.00320005 24.96150017 4.96530008 214 39 40
3.73810005 24.96199989 4.96570015 214 39 40
4.15000010 24.92849922 5.04020023 214 39 40
3.69939995 24.96139908 5.00129986 214 39 40
-0.59600002 24.96229935 5.01179981 214 39 40
0.30849999 24.95840073 5.03200006 214 39 40
2.16860008 24.96030045 4.98719978 214 39 40
3.74760008 24.96190071 4.96369982 214 39 40
-0.53450000 24.96279907 4.96509981 214 39 40
0.14960000 24.94179916 5.03919983 214 39 40
2.17140007 24.95739937 5.02750015 214 39 40
2.77740002 24.96159935 4.94880009 214 39 40
4.01319981 24.90130043 4.91979980 214 39 40
1.97080004 24.96010017 5.01440001 214 39 40
3.67799997 24.95649910 5.03429985 214 39 40
-0.07220000 24.95890045 5.03109980 214 39 40
2.92449999 24.98839951 4.91459990 214 39 40
2.42779994 24.95730019 5.02810001 214 39 40
-0.24570000 24.96249962 5.01889992 214 39 40
2.56450009 24.94700050 5.03590012 214 39 40
2.50189996 24.96019936 4.96330023 214 39 40
3.14339995 24.96100044 4.95889997 214 39 40
3.66580009 24.96100044 5.00299978 214 39 40
3.66560006 24.96170044 4.98299980 214 39 40
3.79349995 24.92329979 5.03910017 214 39 40
1.82449996 24.95949936 5.02250004 214 39 40
0.72920001 24.93799973 5.03770018 214 39 40
4.02549982 24.96100044 5.02479982 214 39 40
3.20079994 24.96139908 4.96110010 214 39 40
3.79509997 24.96129990 4.98789978 214 39 40
2.89019990 24.96120071 4.95979977 214 39 40
3.68799996 24.96150017 5.02220011 214 39 40
3.17890000 24.96120071 5.01719999 214 39 40
3.72199988 24.90290070 4.92049980 214 39 40
0.27329999 24.96199989 4.99230003 214 39 40
-0.28400001 24.96279907 4.96640015 214 39 40
3.48189998 24.96100044 5.00769997 214 39 40
0.37840000 24.96109962 5.01660013 214 39 40
3.24169993 24.96139908 4.96460009 214 39 40
2.14510012 24.95359993 5.03329992 214 39 40
3.34750009 24.95890045 4.95550013 214 39 40
4.08970022 24.96150017 4.98909998 214 39 40
4.22230005 24.89889908 5.04409981 214 39 40
4.25729990 24.89859962 5.04320002 214 39 40
4.26660013 24.90220070 5.04400015 214 39 40
4.21210003 24.92390060 5.04190016 214 39 40
4.25600004 24.91239929 5.03770018 214 39 40
4.28149986 24.92620087 5.04099989 214 39 40
4.20450020 24.91119957 5.04040003 214 39 40
4.20679998 24.89830017 5.04069996 214 39 40
4.21600008 24.91270065 5.04099989 214 39 40
4.21859980 24.89489937 5.04110003 214 39 40
4.22590017 24.90959930 5.04040003 214 39 40
4.22809982 24.90099907 5.04090023 214 39 40
4.23400021 24.89249992 5.04349995 214 39 40
4.23869991 24.90239906 5.04099989 214 39 40
4.25640011 24.90909958 5.03380013 214 39 40
4.38219976 24.90690041 5.03690004 214 39 40
4.36009979 24.89459991 5.03840017 214 39 40
4.28910017 24.89439964 5.04440022 214 39 40
4.28599977 24.89719963 5.03959990 214 39 40
4.27990007 24.89669991 5.03970003 214 39 40
4.28910017 24.90200043 5.03959990 214 39 40
4.27370024 24.89629936 5.04029989 214 39 40
4.28240013 24.90110016 5.03919983 214 39 40
4.26520014 24.89480019 5.04220009 214 39 40
4.28490019 24.90559959 5.03919983 214 39 40
4.28929996 24.90810013 5.03940010 214 39 40
4.26739979 24.89830017 5.03929996 214 39 40
4.27339983 24.90189934 5.03950024 214 39 40
4.27979994 24.90570068 5.03950024 214 39 40
4.29050016 24.91250038 5.04160023 214 39 40
4.26179981 24.89819908 5.03989983 214 39 40
4.28230000 24.91010094 5.03929996 214 39 40
4.35970020 24.94980049 5.04110003 214 39 40
4.24819994 24.89399910 5.04400015 214 39 40
4.26469994 24.90279961 5.03929996 214 39 40
4.26959991 24.90579987 5.03959990 214 39 40
4.27449989 24.90850067 5.03900003 214 39 40
4.28669977 24.91559982 5.03940010 214 39 40
4.29090023 24.91939926 5.04409981 214 39 40
4.24949980 24.89669991 5.03980017 214 39 40
4.25860023 24.90220070 5.03959990 214 39 40
4.27810001 24.91370010 5.03919983 214 39 40
4.28919983 24.92000008 5.03919983 214 39 40
4.24090004 24.89489937 5.04209995 214 39 40
4.26149988 24.90699959 5.03940010 214 39 40
4.26590014 24.90950012 5.03900003 214 39 40
4.27190018 24.91309929 5.03889990 214 39 40
4.28070021 24.91819954 5.03910017 214 39 40
4.24350023 24.89889908 5.03929996 214 39 40
4.24790001 24.90159988 5.03919983 214 39 40
4.25260019 24.90460014 5.03900003 214 39 40
4.28770018 24.92530060 5.03940010 214 39 40
4.26380014 24.91449928 5.03919983 214 39 40
